# This PCD file was generated using the MATLAB® pcwrite function
# from Computer Vision System Toolbox®.
# .PCD v.7 - Point Cloud Data file format
VERSION .7
FIELDS x y z rgb
SIZE 4 4 4 4
TYPE F F F F
COUNT 1 1 1 1
WIDTH 645
HEIGHT 1
VIEWPOINT 0 0 0 1 0 0 0
POINTS 645
DATA ascii
-82.857147216796875 -42.667499542236328 0.000000000000000 0.000000000e+00
-82.857147216796875 -41.619998931884766 0.000000000000000 0.000000000e+00
-82.857147216796875 -40.572502136230469 0.000000000000000 0.000000000e+00
-82.857147216796875 -39.525001525878906 0.000000000000000 0.000000000e+00
-82.857147216796875 -38.477500915527344 0.000000000000000 0.000000000e+00
-82.857147216796875 -37.429996490478516 0.000000000000000 0.000000000e+00
-82.857147216796875 -36.382499694824219 0.000000000000000 0.000000000e+00
-82.857147216796875 -35.334999084472656 0.000000000000000 0.000000000e+00
-82.857147216796875 -34.287498474121094 0.000000000000000 0.000000000e+00
-82.857147216796875 -33.240001678466797 0.000000000000000 0.000000000e+00
-82.857147216796875 -32.192501068115234 0.000000000000000 0.000000000e+00
-82.857147216796875 -31.145000457763672 0.000000000000000 0.000000000e+00
-82.857147216796875 -30.097496032714844 0.000000000000000 0.000000000e+00
-82.857147216796875 -29.049999237060547 0.000000000000000 0.000000000e+00
-82.857147216796875 -28.002502441406250 0.000000000000000 0.000000000e+00
-82.857147216796875 -25.907501220703125 0.000000000000000 0.000000000e+00
-82.857147216796875 -24.859998703002930 0.000000000000000 0.000000000e+00
-82.857147216796875 -23.812500000000000 0.000000000000000 0.000000000e+00
-82.857147216796875 -22.764995574951172 0.000000000000000 0.000000000e+00
-82.857147216796875 -21.717500686645508 0.000000000000000 0.000000000e+00
-82.857147216796875 -20.670001983642578 0.000000000000000 0.000000000e+00
-82.857147216796875 -19.622501373291016 0.000000000000000 0.000000000e+00
-82.857147216796875 -18.574998855590820 0.000000000000000 0.000000000e+00
-82.857147216796875 -17.527500152587891 0.000000000000000 0.000000000e+00
-82.857147216796875 -7.465084075927734 -0.024922162294388 0.000000000e+00
-82.857147216796875 -6.833446979522705 -0.099634945392609 0.000000000e+00
-82.857147216796875 -6.209618568420410 -0.223677515983582 0.000000000e+00
-82.857147216796875 -5.597446918487549 -0.396285057067871 0.000000000e+00
-82.857147216796875 -5.000705718994141 -0.616393089294434 0.000000000e+00
-82.857147216796875 -4.423073768615723 -0.882644891738892 0.000000000e+00
-82.857147216796875 -3.868113994598389 -1.193398475646973 0.000000000e+00
-82.857147216796875 -3.339248180389404 -1.546738147735596 0.000000000e+00
-82.857147216796875 -2.839736938476563 -1.940484285354614 0.000000000e+00
-82.857147216796875 -2.372659683227539 -2.372210025787354 0.000000000e+00
-82.857147216796875 -1.940897464752197 -2.839253425598145 0.000000000e+00
-82.857147216796875 -1.547112226486206 -3.338734149932861 0.000000000e+00
-82.857147216796875 -0.882933855056763 -4.422507286071777 0.000000000e+00
-82.857147216796875 -0.616636753082275 -5.000116825103760 0.000000000e+00
-82.857147216796875 0.000000000000000 -48.952499389648438 0.000000000e+00
-82.857147216796875 0.000000000000000 -47.904998779296875 0.000000000e+00
-82.857147216796875 0.000000000000000 -46.857498168945313 0.000000000e+00
-82.857147216796875 0.000000000000000 -45.809997558593750 0.000000000e+00
-82.857147216796875 0.000000000000000 -44.762500762939453 0.000000000e+00
-82.857147216796875 0.000000000000000 -43.715000152587891 0.000000000e+00
-82.857147216796875 0.000000000000000 -42.667499542236328 0.000000000e+00
-82.857147216796875 0.000000000000000 -40.572502136230469 0.000000000e+00
-82.857147216796875 0.000000000000000 -39.525001525878906 0.000000000e+00
-82.857147216796875 0.000000000000000 -38.477500915527344 0.000000000e+00
-82.857147216796875 0.000000000000000 -37.429996490478516 0.000000000e+00
-82.857147216796875 0.000000000000000 -36.382499694824219 0.000000000e+00
-82.857147216796875 0.000000000000000 -35.334999084472656 0.000000000e+00
-82.857147216796875 0.000000000000000 -34.287498474121094 0.000000000e+00
-82.857147216796875 0.000000000000000 -33.240001678466797 0.000000000e+00
-82.857147216796875 0.000000000000000 -32.192501068115234 0.000000000e+00
-82.857147216796875 0.000000000000000 -31.145000457763672 0.000000000e+00
-82.857147216796875 0.000000000000000 -30.097496032714844 0.000000000e+00
-82.857147216796875 0.000000000000000 -29.049999237060547 0.000000000e+00
-82.857147216796875 0.000000000000000 -28.002502441406250 0.000000000e+00
-82.857147216796875 0.000000000000000 -26.955001831054688 0.000000000e+00
-82.857147216796875 0.000000000000000 -25.907497406005859 0.000000000e+00
-82.857147216796875 0.000000000000000 -24.859998703002930 0.000000000e+00
-82.857147216796875 0.000000000000000 -23.812500000000000 0.000000000e+00
-82.857147216796875 0.000000000000000 -22.764997482299805 0.000000000e+00
-82.857147216796875 0.000000000000000 -21.717502593994141 0.000000000e+00
-82.857147216796875 0.000000000000000 -20.670001983642578 0.000000000e+00
-82.857147216796875 0.000000000000000 -19.622499465942383 0.000000000e+00
-82.857147216796875 0.000000000000000 -18.575000762939453 0.000000000e+00
-82.857139587402344 -50.000000000000000 0.000000000000000 0.000000000e+00
-82.857139587402344 -16.479999542236328 0.000000000000000 0.000000000e+00
-82.857139587402344 -15.432500839233398 0.000000000000000 0.000000000e+00
-82.857139587402344 -14.384999275207520 0.000000000000000 0.000000000e+00
-82.857139587402344 -13.337498664855957 0.000000000000000 0.000000000e+00
-82.857139587402344 -12.289999961853027 0.000000000000000 0.000000000e+00
-82.857139587402344 -11.242500305175781 0.000000000000000 0.000000000e+00
-82.857139587402344 -9.147500991821289 0.000000000000000 0.000000000e+00
-82.857139587402344 -8.100000381469727 0.000000000000000 0.000000000e+00
-82.857139587402344 -0.396481633186340 -5.596841812133789 0.000000000e+00
-82.857139587402344 -0.223825931549072 -6.208999633789063 0.000000000e+00
-82.857139587402344 -0.099734365940094 -6.832818508148193 0.000000000e+00
-82.857139587402344 0.000000000000000 -50.000000000000000 0.000000000e+00
-82.857139587402344 0.000000000000000 -17.527500152587891 0.000000000e+00
-82.857139587402344 0.000000000000000 -16.479999542236328 0.000000000e+00
-82.857139587402344 0.000000000000000 -15.432500839233398 0.000000000e+00
-82.857139587402344 0.000000000000000 -14.385000228881836 0.000000000e+00
-82.857139587402344 0.000000000000000 -13.337498664855957 0.000000000e+00
-82.857139587402344 0.000000000000000 -12.290000915527344 0.000000000e+00
-82.857139587402344 0.000000000000000 -11.242500305175781 0.000000000e+00
-82.857139587402344 0.000000000000000 -10.194998741149902 0.000000000e+00
-82.857139587402344 0.000000000000000 -9.147499084472656 0.000000000e+00
-82.857139587402344 0.000000000000000 -8.100000381469727 0.000000000e+00
-82.857131958007813 -26.954999923706055 0.000000000000000 0.000000000e+00
-82.857131958007813 -1.193731307983398 -3.867571353912354 0.000000000e+00
-82.857131958007813 -0.024972081184387 -7.464449882507324 0.000000000e+00
-82.857131958007813 0.000000000000000 -41.619995117187500 0.000000000e+00
-82.857124328613281 -10.194999694824219 0.000000000000000 0.000000000e+00
-82.142875671386719 -9.147500991821289 0.000000000000000 0.000000000e+00
-82.142868041992188 -48.952499389648438 0.000000000000000 0.000000000e+00
-82.142868041992188 -47.904998779296875 0.000000000000000 0.000000000e+00
-82.142868041992188 -46.857498168945313 0.000000000000000 0.000000000e+00
-82.142868041992188 -44.762496948242188 0.000000000000000 0.000000000e+00
-82.142868041992188 -43.714996337890625 0.000000000000000 0.000000000e+00
-82.142868041992188 -42.667495727539063 0.000000000000000 0.000000000e+00
-82.142868041992188 -41.619995117187500 0.000000000000000 0.000000000e+00
-82.142868041992188 -40.572494506835938 0.000000000000000 0.000000000e+00
-82.142868041992188 -39.525001525878906 0.000000000000000 0.000000000e+00
-82.142868041992188 -38.477500915527344 0.000000000000000 0.000000000e+00
-82.142868041992188 -37.429996490478516 0.000000000000000 0.000000000e+00
-82.142868041992188 -36.382499694824219 0.000000000000000 0.000000000e+00
-82.142868041992188 -35.334999084472656 0.000000000000000 0.000000000e+00
-82.142868041992188 -34.287498474121094 0.000000000000000 0.000000000e+00
-82.142868041992188 -33.240001678466797 0.000000000000000 0.000000000e+00
-82.142868041992188 -32.192501068115234 0.000000000000000 0.000000000e+00
-82.142868041992188 -31.145000457763672 0.000000000000000 0.000000000e+00
-82.142868041992188 -30.097497940063477 0.000000000000000 0.000000000e+00
-82.142868041992188 -29.049999237060547 0.000000000000000 0.000000000e+00
-82.142868041992188 -28.002502441406250 0.000000000000000 0.000000000e+00
-82.142868041992188 -25.907501220703125 0.000000000000000 0.000000000e+00
-82.142868041992188 -24.859996795654297 0.000000000000000 0.000000000e+00
-82.142868041992188 -23.812500000000000 0.000000000000000 0.000000000e+00
-82.142868041992188 -22.764999389648438 0.000000000000000 0.000000000e+00
-82.142868041992188 -21.717502593994141 0.000000000000000 0.000000000e+00
-82.142868041992188 -20.670001983642578 0.000000000000000 0.000000000e+00
-82.142868041992188 -19.622501373291016 0.000000000000000 0.000000000e+00
-82.142868041992188 -18.574998855590820 0.000000000000000 0.000000000e+00
-82.142868041992188 -17.527500152587891 0.000000000000000 0.000000000e+00
-82.142868041992188 -7.465084075927734 -0.024922192096710 0.000000000e+00
-82.142868041992188 -6.833446979522705 -0.099634885787964 0.000000000e+00
-82.142868041992188 -6.209618568420410 -0.223677396774292 0.000000000e+00
-82.142868041992188 -5.597446918487549 -0.396285057067871 0.000000000e+00
-82.142868041992188 -5.000705718994141 -0.616393089294434 0.000000000e+00
-82.142868041992188 -4.423073768615723 -0.882644891738892 0.000000000e+00
-82.142868041992188 -3.868113994598389 -1.193398475646973 0.000000000e+00
-82.142868041992188 -3.339248180389404 -1.546738147735596 0.000000000e+00
-82.142868041992188 -2.839736938476563 -1.940484523773193 0.000000000e+00
-82.142868041992188 -2.372659683227539 -2.372210025787354 0.000000000e+00
-82.142868041992188 -1.940897464752197 -2.839253425598145 0.000000000e+00
-82.142868041992188 -1.547112226486206 -3.338734149932861 0.000000000e+00
-82.142868041992188 -1.193731307983398 -3.867571353912354 0.000000000e+00
-82.142868041992188 -0.882933855056763 -4.422506332397461 0.000000000e+00
-82.142868041992188 -0.616636753082275 -5.000116825103760 0.000000000e+00
-82.142868041992188 -0.024972081184387 -7.464449882507324 0.000000000e+00
-82.142868041992188 0.000000000000000 -48.952499389648438 0.000000000e+00
-82.142868041992188 0.000000000000000 -47.904998779296875 0.000000000e+00
-82.142868041992188 0.000000000000000 -46.857498168945313 0.000000000e+00
-82.142868041992188 0.000000000000000 -43.715000152587891 0.000000000e+00
-82.142868041992188 0.000000000000000 -42.667499542236328 0.000000000e+00
-82.142868041992188 0.000000000000000 -41.619995117187500 0.000000000e+00
-82.142868041992188 0.000000000000000 -40.572502136230469 0.000000000e+00
-82.142868041992188 0.000000000000000 -39.525001525878906 0.000000000e+00
-82.142868041992188 0.000000000000000 -38.477500915527344 0.000000000e+00
-82.142868041992188 0.000000000000000 -37.429996490478516 0.000000000e+00
-82.142868041992188 0.000000000000000 -36.382499694824219 0.000000000e+00
-82.142868041992188 0.000000000000000 -35.334999084472656 0.000000000e+00
-82.142868041992188 0.000000000000000 -34.287498474121094 0.000000000e+00
-82.142868041992188 0.000000000000000 -33.240001678466797 0.000000000e+00
-82.142868041992188 0.000000000000000 -32.192501068115234 0.000000000e+00
-82.142868041992188 0.000000000000000 -31.145000457763672 0.000000000e+00
-82.142868041992188 0.000000000000000 -30.097497940063477 0.000000000e+00
-82.142868041992188 0.000000000000000 -29.049999237060547 0.000000000e+00
-82.142868041992188 0.000000000000000 -28.002502441406250 0.000000000e+00
-82.142868041992188 0.000000000000000 -26.955001831054688 0.000000000e+00
-82.142868041992188 0.000000000000000 -25.907501220703125 0.000000000e+00
-82.142868041992188 0.000000000000000 -24.859998703002930 0.000000000e+00
-82.142868041992188 0.000000000000000 -23.812500000000000 0.000000000e+00
-82.142868041992188 0.000000000000000 -22.764995574951172 0.000000000e+00
-82.142868041992188 0.000000000000000 -21.717502593994141 0.000000000e+00
-82.142868041992188 0.000000000000000 -20.669998168945313 0.000000000e+00
-82.142868041992188 0.000000000000000 -19.622499465942383 0.000000000e+00
-82.142868041992188 0.000000000000000 -18.575000762939453 0.000000000e+00
-82.142860412597656 -50.000000000000000 0.000000000000000 0.000000000e+00
-82.142860412597656 -16.479999542236328 0.000000000000000 0.000000000e+00
-82.142860412597656 -15.432500839233398 0.000000000000000 0.000000000e+00
-82.142860412597656 -14.384999275207520 0.000000000000000 0.000000000e+00
-82.142860412597656 -13.337498664855957 0.000000000000000 0.000000000e+00
-82.142860412597656 -12.289999961853027 0.000000000000000 0.000000000e+00
-82.142860412597656 -11.242500305175781 0.000000000000000 0.000000000e+00
-82.142860412597656 -8.100000381469727 0.000000000000000 0.000000000e+00
-82.142860412597656 -0.396481633186340 -5.596841812133789 0.000000000e+00
-82.142860412597656 -0.223825931549072 -6.208999633789063 0.000000000e+00
-82.142860412597656 -0.099734365940094 -6.832818508148193 0.000000000e+00
-82.142860412597656 0.000000000000000 -50.000000000000000 0.000000000e+00
-82.142860412597656 0.000000000000000 -17.527500152587891 0.000000000e+00
-82.142860412597656 0.000000000000000 -16.479999542236328 0.000000000e+00
-82.142860412597656 0.000000000000000 -15.432500839233398 0.000000000e+00
-82.142860412597656 0.000000000000000 -14.385000228881836 0.000000000e+00
-82.142860412597656 0.000000000000000 -13.337497711181641 0.000000000e+00
-82.142860412597656 0.000000000000000 -12.290000915527344 0.000000000e+00
-82.142860412597656 0.000000000000000 -11.242500305175781 0.000000000e+00
-82.142860412597656 0.000000000000000 -10.194998741149902 0.000000000e+00
-82.142860412597656 0.000000000000000 -9.147499084472656 0.000000000e+00
-82.142860412597656 0.000000000000000 -8.100000381469727 0.000000000e+00
-82.142852783203125 -45.809997558593750 0.000000000000000 0.000000000e+00
-82.142852783203125 -26.954999923706055 0.000000000000000 0.000000000e+00
-82.142852783203125 0.000000000000000 -45.810001373291016 0.000000000e+00
-82.142852783203125 0.000000000000000 -44.762500762939453 0.000000000e+00
-82.142845153808594 -10.194999694824219 0.000000000000000 0.000000000e+00
-81.428581237792969 -0.024972081184387 -7.464448928833008 0.000000000e+00
-81.428573608398438 -50.000000000000000 0.000000000000000 0.000000000e+00
-81.428573608398438 -29.049999237060547 0.000000000000000 0.000000000e+00
-81.428573608398438 -28.002504348754883 0.000000000000000 0.000000000e+00
-81.428573608398438 -26.954998016357422 0.000000000000000 0.000000000e+00
-81.428573608398438 -25.907497406005859 0.000000000000000 0.000000000e+00
-81.428573608398438 -24.860000610351563 0.000000000000000 0.000000000e+00
-81.428573608398438 -23.812501907348633 0.000000000000000 0.000000000e+00
-81.428573608398438 -22.764999389648438 0.000000000000000 0.000000000e+00
-81.428573608398438 -21.717502593994141 0.000000000000000 0.000000000e+00
-81.428573608398438 -20.670003890991211 0.000000000000000 0.000000000e+00
-81.428573608398438 -19.622501373291016 0.000000000000000 0.000000000e+00
-81.428573608398438 -18.574998855590820 0.000000000000000 0.000000000e+00
-81.428573608398438 -17.527500152587891 0.000000000000000 0.000000000e+00
-81.428573608398438 -16.479999542236328 0.000000000000000 0.000000000e+00
-81.428573608398438 -15.432498931884766 0.000000000000000 0.000000000e+00
-81.428573608398438 -14.384999275207520 0.000000000000000 0.000000000e+00
-81.428573608398438 -13.337498664855957 0.000000000000000 0.000000000e+00
-81.428573608398438 -12.289999961853027 0.000000000000000 0.000000000e+00
-81.428573608398438 -11.242500305175781 0.000000000000000 0.000000000e+00
-81.428573608398438 -10.194999694824219 0.000000000000000 0.000000000e+00
-81.428573608398438 -9.147500991821289 0.000000000000000 0.000000000e+00
-81.428573608398438 -8.100000381469727 0.000000000000000 0.000000000e+00
-81.428573608398438 -1.940897464752197 -2.839252948760986 0.000000000e+00
-81.428573608398438 -1.547112226486206 -3.338734149932861 0.000000000e+00
-81.428573608398438 -1.193731307983398 -3.867572307586670 0.000000000e+00
-81.428573608398438 -0.882933855056763 -4.422506332397461 0.000000000e+00
-81.428573608398438 -0.616636753082275 -5.000117301940918 0.000000000e+00
-81.428573608398438 -0.396481752395630 -5.596841812133789 0.000000000e+00
-81.428573608398438 -0.223825931549072 -6.208999633789063 0.000000000e+00
-81.428573608398438 -0.099734365940094 -6.832818984985352 0.000000000e+00
-81.428573608398438 0.000000000000000 -50.000000000000000 0.000000000e+00
-81.428573608398438 0.000000000000000 -28.002502441406250 0.000000000e+00
-81.428573608398438 0.000000000000000 -26.955001831054688 0.000000000e+00
-81.428573608398438 0.000000000000000 -25.907501220703125 0.000000000e+00
-81.428573608398438 0.000000000000000 -24.860000610351563 0.000000000e+00
-81.428573608398438 0.000000000000000 -23.812500000000000 0.000000000e+00
-81.428573608398438 0.000000000000000 -22.764997482299805 0.000000000e+00
-81.428573608398438 0.000000000000000 -21.717502593994141 0.000000000e+00
-81.428573608398438 0.000000000000000 -20.670001983642578 0.000000000e+00
-81.428573608398438 0.000000000000000 -19.622499465942383 0.000000000e+00
-81.428573608398438 0.000000000000000 -18.575000762939453 0.000000000e+00
-81.428573608398438 0.000000000000000 -17.527500152587891 0.000000000e+00
-81.428573608398438 0.000000000000000 -16.479999542236328 0.000000000e+00
-81.428573608398438 0.000000000000000 -15.432498931884766 0.000000000e+00
-81.428573608398438 0.000000000000000 -14.385000228881836 0.000000000e+00
-81.428573608398438 0.000000000000000 -13.337498664855957 0.000000000e+00
-81.428573608398438 0.000000000000000 -12.290000915527344 0.000000000e+00
-81.428573608398438 0.000000000000000 -11.242500305175781 0.000000000e+00
-81.428573608398438 0.000000000000000 -10.194999694824219 0.000000000e+00
-81.428573608398438 0.000000000000000 -9.147499084472656 0.000000000e+00
-81.428573608398438 0.000000000000000 -8.100000381469727 0.000000000e+00
-81.428565979003906 -48.952499389648438 0.000000000000000 0.000000000e+00
-81.428565979003906 -47.904998779296875 0.000000000000000 0.000000000e+00
-81.428565979003906 -46.857498168945313 0.000000000000000 0.000000000e+00
-81.428565979003906 -45.810001373291016 0.000000000000000 0.000000000e+00
-81.428565979003906 -44.762500762939453 0.000000000000000 0.000000000e+00
-81.428565979003906 -43.715000152587891 0.000000000000000 0.000000000e+00
-81.428565979003906 -42.667495727539063 0.000000000000000 0.000000000e+00
-81.428565979003906 -41.619995117187500 0.000000000000000 0.000000000e+00
-81.428565979003906 -40.572502136230469 0.000000000000000 0.000000000e+00
-81.428565979003906 -39.525001525878906 0.000000000000000 0.000000000e+00
-81.428565979003906 -38.477500915527344 0.000000000000000 0.000000000e+00
-81.428565979003906 -37.429996490478516 0.000000000000000 0.000000000e+00
-81.428565979003906 -36.382499694824219 0.000000000000000 0.000000000e+00
-81.428565979003906 -35.334999084472656 0.000000000000000 0.000000000e+00
-81.428565979003906 -34.287498474121094 0.000000000000000 0.000000000e+00
-81.428565979003906 -33.240001678466797 0.000000000000000 0.000000000e+00
-81.428565979003906 -32.192501068115234 0.000000000000000 0.000000000e+00
-81.428565979003906 -31.145000457763672 0.000000000000000 0.000000000e+00
-81.428565979003906 -30.097497940063477 0.000000000000000 0.000000000e+00
-81.428565979003906 -7.465084552764893 -0.024922192096710 0.000000000e+00
-81.428565979003906 -6.833446979522705 -0.099634945392609 0.000000000e+00
-81.428565979003906 -6.209618568420410 -0.223677396774292 0.000000000e+00
-81.428565979003906 -5.597446441650391 -0.396284937858582 0.000000000e+00
-81.428565979003906 -5.000705718994141 -0.616393089294434 0.000000000e+00
-81.428565979003906 -4.423072814941406 -0.882644891738892 0.000000000e+00
-81.428565979003906 -3.868113994598389 -1.193398475646973 0.000000000e+00
-81.428565979003906 -3.339248180389404 -1.546738147735596 0.000000000e+00
-81.428565979003906 -2.839736938476563 -1.940484046936035 0.000000000e+00
-81.428565979003906 -2.372659683227539 -2.372210025787354 0.000000000e+00
-81.428565979003906 0.000000000000000 -48.952499389648438 0.000000000e+00
-81.428565979003906 0.000000000000000 -47.904998779296875 0.000000000e+00
-81.428565979003906 0.000000000000000 -46.857498168945313 0.000000000e+00
-81.428565979003906 0.000000000000000 -45.810001373291016 0.000000000e+00
-81.428565979003906 0.000000000000000 -44.762500762939453 0.000000000e+00
-81.428565979003906 0.000000000000000 -43.715000152587891 0.000000000e+00
-81.428565979003906 0.000000000000000 -42.667495727539063 0.000000000e+00
-81.428565979003906 0.000000000000000 -41.619995117187500 0.000000000e+00
-81.428565979003906 0.000000000000000 -40.572502136230469 0.000000000e+00
-81.428565979003906 0.000000000000000 -39.525001525878906 0.000000000e+00
-81.428565979003906 0.000000000000000 -38.477500915527344 0.000000000e+00
-81.428565979003906 0.000000000000000 -37.429996490478516 0.000000000e+00
-81.428565979003906 0.000000000000000 -36.382499694824219 0.000000000e+00
-81.428565979003906 0.000000000000000 -35.334999084472656 0.000000000e+00
-81.428565979003906 0.000000000000000 -34.287498474121094 0.000000000e+00
-81.428565979003906 0.000000000000000 -33.240001678466797 0.000000000e+00
-81.428565979003906 0.000000000000000 -32.192501068115234 0.000000000e+00
-81.428565979003906 0.000000000000000 -31.145000457763672 0.000000000e+00
-81.428565979003906 0.000000000000000 -30.097497940063477 0.000000000e+00
-81.428565979003906 0.000000000000000 -29.049999237060547 0.000000000e+00
-80.714302062988281 -9.147500991821289 0.000000000000000 0.000000000e+00
-80.714302062988281 -0.616636753082275 -5.000117301940918 0.000000000e+00
-80.714302062988281 -0.223825931549072 -6.208999633789063 0.000000000e+00
-80.714302062988281 0.000000000000000 -16.479999542236328 0.000000000e+00
-80.714294433593750 -48.952499389648438 0.000000000000000 0.000000000e+00
-80.714294433593750 -47.904998779296875 0.000000000000000 0.000000000e+00
-80.714294433593750 -46.857498168945313 0.000000000000000 0.000000000e+00
-80.714294433593750 -45.810001373291016 0.000000000000000 0.000000000e+00
-80.714294433593750 -44.762500762939453 0.000000000000000 0.000000000e+00
-80.714294433593750 -43.715003967285156 0.000000000000000 0.000000000e+00
-80.714294433593750 -42.667503356933594 0.000000000000000 0.000000000e+00
-80.714294433593750 -41.619991302490234 0.000000000000000 0.000000000e+00
-80.714294433593750 -40.572502136230469 0.000000000000000 0.000000000e+00
-80.714294433593750 -39.525001525878906 0.000000000000000 0.000000000e+00
-80.714294433593750 -38.477500915527344 0.000000000000000 0.000000000e+00
-80.714294433593750 -37.429996490478516 0.000000000000000 0.000000000e+00
-80.714294433593750 -36.382499694824219 0.000000000000000 0.000000000e+00
-80.714294433593750 -35.334999084472656 0.000000000000000 0.000000000e+00
-80.714294433593750 -34.287498474121094 0.000000000000000 0.000000000e+00
-80.714294433593750 -33.240001678466797 0.000000000000000 0.000000000e+00
-80.714294433593750 -32.192501068115234 0.000000000000000 0.000000000e+00
-80.714294433593750 -31.145000457763672 0.000000000000000 0.000000000e+00
-80.714294433593750 -30.097497940063477 0.000000000000000 0.000000000e+00
-80.714294433593750 -29.049999237060547 0.000000000000000 0.000000000e+00
-80.714294433593750 -28.002502441406250 0.000000000000000 0.000000000e+00
-80.714294433593750 -25.907501220703125 0.000000000000000 0.000000000e+00
-80.714294433593750 -24.859998703002930 0.000000000000000 0.000000000e+00
-80.714294433593750 -23.812500000000000 0.000000000000000 0.000000000e+00
-80.714294433593750 -22.764997482299805 0.000000000000000 0.000000000e+00
-80.714294433593750 -21.717502593994141 0.000000000000000 0.000000000e+00
-80.714294433593750 -16.479997634887695 0.000000000000000 0.000000000e+00
-80.714294433593750 -7.465084552764893 -0.024922192096710 0.000000000e+00
-80.714294433593750 -6.833446025848389 -0.099634885787964 0.000000000e+00
-80.714294433593750 -6.209618568420410 -0.223677396774292 0.000000000e+00
-80.714294433593750 -5.597446441650391 -0.396284937858582 0.000000000e+00
-80.714294433593750 -5.000705718994141 -0.616393089294434 0.000000000e+00
-80.714294433593750 -4.423072814941406 -0.882644891738892 0.000000000e+00
-80.714294433593750 -3.868113994598389 -1.193398714065552 0.000000000e+00
-80.714294433593750 -3.339248180389404 -1.546738386154175 0.000000000e+00
-80.714294433593750 -2.839736938476563 -1.940484285354614 0.000000000e+00
-80.714294433593750 -2.372659683227539 -2.372210025787354 0.000000000e+00
-80.714294433593750 -1.940897464752197 -2.839253425598145 0.000000000e+00
-80.714294433593750 -1.547111988067627 -3.338734149932861 0.000000000e+00
-80.714294433593750 -1.193731307983398 -3.867571830749512 0.000000000e+00
-80.714294433593750 -0.024972081184387 -7.464449882507324 0.000000000e+00
-80.714294433593750 0.000000000000000 -48.952499389648438 0.000000000e+00
-80.714294433593750 0.000000000000000 -47.904998779296875 0.000000000e+00
-80.714294433593750 0.000000000000000 -46.857498168945313 0.000000000e+00
-80.714294433593750 0.000000000000000 -45.810001373291016 0.000000000e+00
-80.714294433593750 0.000000000000000 -44.762500762939453 0.000000000e+00
-80.714294433593750 0.000000000000000 -43.715000152587891 0.000000000e+00
-80.714294433593750 0.000000000000000 -42.667503356933594 0.000000000e+00
-80.714294433593750 0.000000000000000 -41.619995117187500 0.000000000e+00
-80.714294433593750 0.000000000000000 -40.572502136230469 0.000000000e+00
-80.714294433593750 0.000000000000000 -39.525001525878906 0.000000000e+00
-80.714294433593750 0.000000000000000 -38.477500915527344 0.000000000e+00
-80.714294433593750 0.000000000000000 -37.429996490478516 0.000000000e+00
-80.714294433593750 0.000000000000000 -36.382499694824219 0.000000000e+00
-80.714294433593750 0.000000000000000 -35.334999084472656 0.000000000e+00
-80.714294433593750 0.000000000000000 -34.287498474121094 0.000000000e+00
-80.714294433593750 0.000000000000000 -33.240001678466797 0.000000000e+00
-80.714294433593750 0.000000000000000 -32.192501068115234 0.000000000e+00
-80.714294433593750 0.000000000000000 -31.145000457763672 0.000000000e+00
-80.714294433593750 0.000000000000000 -30.097497940063477 0.000000000e+00
-80.714294433593750 0.000000000000000 -29.049999237060547 0.000000000e+00
-80.714294433593750 0.000000000000000 -28.002502441406250 0.000000000e+00
-80.714294433593750 0.000000000000000 -26.955001831054688 0.000000000e+00
-80.714294433593750 0.000000000000000 -25.907501220703125 0.000000000e+00
-80.714294433593750 0.000000000000000 -24.859998703002930 0.000000000e+00
-80.714294433593750 0.000000000000000 -23.812500000000000 0.000000000e+00
-80.714294433593750 0.000000000000000 -22.764997482299805 0.000000000e+00
-80.714294433593750 0.000000000000000 -21.717502593994141 0.000000000e+00
-80.714294433593750 0.000000000000000 -20.670001983642578 0.000000000e+00
-80.714294433593750 0.000000000000000 -19.622499465942383 0.000000000e+00
-80.714294433593750 0.000000000000000 -18.575000762939453 0.000000000e+00
-80.714286804199219 -50.000000000000000 0.000000000000000 0.000000000e+00
-80.714286804199219 -20.670001983642578 0.000000000000000 0.000000000e+00
-80.714286804199219 -19.622501373291016 0.000000000000000 0.000000000e+00
-80.714286804199219 -18.574998855590820 0.000000000000000 0.000000000e+00
-80.714286804199219 -17.527500152587891 0.000000000000000 0.000000000e+00
-80.714286804199219 -15.432500839233398 0.000000000000000 0.000000000e+00
-80.714286804199219 -14.384999275207520 0.000000000000000 0.000000000e+00
-80.714286804199219 -13.337498664855957 0.000000000000000 0.000000000e+00
-80.714286804199219 -11.242500305175781 0.000000000000000 0.000000000e+00
-80.714286804199219 -10.194999694824219 0.000000000000000 0.000000000e+00
-80.714286804199219 -8.100000381469727 0.000000000000000 0.000000000e+00
-80.714286804199219 -0.882933855056763 -4.422506332397461 0.000000000e+00
-80.714286804199219 -0.396481633186340 -5.596840381622315 0.000000000e+00
-80.714286804199219 0.000000000000000 -50.000000000000000 0.000000000e+00
-80.714286804199219 0.000000000000000 -17.527500152587891 0.000000000e+00
-80.714286804199219 0.000000000000000 -15.432500839233398 0.000000000e+00
-80.714286804199219 0.000000000000000 -14.385000228881836 0.000000000e+00
-80.714286804199219 0.000000000000000 -13.337498664855957 0.000000000e+00
-80.714286804199219 0.000000000000000 -11.242500305175781 0.000000000e+00
-80.714286804199219 0.000000000000000 -10.194998741149902 0.000000000e+00
-80.714286804199219 0.000000000000000 -9.147499084472656 0.000000000e+00
-80.714286804199219 0.000000000000000 -8.100000381469727 0.000000000e+00
-80.714279174804688 -26.954999923706055 0.000000000000000 0.000000000e+00
-80.714271545410156 -12.289999961853027 0.000000000000000 0.000000000e+00
-80.714271545410156 -0.099734425544739 -6.832818984985352 0.000000000e+00
-80.714271545410156 0.000000000000000 -12.290000915527344 0.000000000e+00
-80.000007629394531 -16.479997634887695 0.000000000000000 0.000000000e+00
-80.000007629394531 -0.024972081184387 -7.464449882507324 0.000000000e+00
-80.000000000000000 -50.000000000000000 0.000000000000000 0.000000000e+00
-80.000000000000000 -17.527500152587891 0.000000000000000 0.000000000e+00
-80.000000000000000 -15.432498931884766 0.000000000000000 0.000000000e+00
-80.000000000000000 -14.384999275207520 0.000000000000000 0.000000000e+00
-80.000000000000000 -13.337498664855957 0.000000000000000 0.000000000e+00
-80.000000000000000 -12.289999008178711 0.000000000000000 0.000000000e+00
-80.000000000000000 -11.242500305175781 0.000000000000000 0.000000000e+00
-80.000000000000000 -10.194999694824219 0.000000000000000 0.000000000e+00
-80.000000000000000 -9.147500991821289 0.000000000000000 0.000000000e+00
-80.000000000000000 -8.100000381469727 0.000000000000000 0.000000000e+00
-80.000000000000000 -0.396481633186340 -5.596841335296631 0.000000000e+00
-80.000000000000000 -0.223825931549072 -6.208999633789063 0.000000000e+00
-80.000000000000000 -0.099734425544739 -6.832818508148193 0.000000000e+00
-80.000000000000000 0.000000000000000 -50.000000000000000 0.000000000e+00
-80.000000000000000 0.000000000000000 -28.002502441406250 0.000000000e+00
-80.000000000000000 0.000000000000000 -26.955001831054688 0.000000000e+00
-80.000000000000000 0.000000000000000 -25.907501220703125 0.000000000e+00
-80.000000000000000 0.000000000000000 -24.859998703002930 0.000000000e+00
-80.000000000000000 0.000000000000000 -23.812500000000000 0.000000000e+00
-80.000000000000000 0.000000000000000 -22.764997482299805 0.000000000e+00
-80.000000000000000 0.000000000000000 -21.717502593994141 0.000000000e+00
-80.000000000000000 0.000000000000000 -20.670001983642578 0.000000000e+00
-80.000000000000000 0.000000000000000 -19.622499465942383 0.000000000e+00
-80.000000000000000 0.000000000000000 -18.575000762939453 0.000000000e+00
-80.000000000000000 0.000000000000000 -17.527500152587891 0.000000000e+00
-80.000000000000000 0.000000000000000 -16.479999542236328 0.000000000e+00
-80.000000000000000 0.000000000000000 -15.432498931884766 0.000000000e+00
-80.000000000000000 0.000000000000000 -14.385000228881836 0.000000000e+00
-80.000000000000000 0.000000000000000 -13.337497711181641 0.000000000e+00
-80.000000000000000 0.000000000000000 -12.290000915527344 0.000000000e+00
-80.000000000000000 0.000000000000000 -11.242500305175781 0.000000000e+00
-80.000000000000000 0.000000000000000 -10.194997787475586 0.000000000e+00
-80.000000000000000 0.000000000000000 -9.147499084472656 0.000000000e+00
-80.000000000000000 0.000000000000000 -8.100000381469727 0.000000000e+00
-79.999992370605469 -48.952499389648438 0.000000000000000 0.000000000e+00
-79.999992370605469 -47.905002593994141 0.000000000000000 0.000000000e+00
-79.999992370605469 -46.857501983642578 0.000000000000000 0.000000000e+00
-79.999992370605469 -45.809997558593750 0.000000000000000 0.000000000e+00
-79.999992370605469 -44.762500762939453 0.000000000000000 0.000000000e+00
-79.999992370605469 -43.715000152587891 0.000000000000000 0.000000000e+00
-79.999992370605469 -42.667499542236328 0.000000000000000 0.000000000e+00
-79.999992370605469 -41.619995117187500 0.000000000000000 0.000000000e+00
-79.999992370605469 -40.572494506835938 0.000000000000000 0.000000000e+00
-79.999992370605469 -39.525001525878906 0.000000000000000 0.000000000e+00
-79.999992370605469 -38.477500915527344 0.000000000000000 0.000000000e+00
-79.999992370605469 -37.429996490478516 0.000000000000000 0.000000000e+00
-79.999992370605469 -36.382499694824219 0.000000000000000 0.000000000e+00
-79.999992370605469 -35.334999084472656 0.000000000000000 0.000000000e+00
-79.999992370605469 -34.287498474121094 0.000000000000000 0.000000000e+00
-79.999992370605469 -33.240001678466797 0.000000000000000 0.000000000e+00
-79.999992370605469 -32.192501068115234 0.000000000000000 0.000000000e+00
-79.999992370605469 -31.145000457763672 0.000000000000000 0.000000000e+00
-79.999992370605469 -30.097501754760742 0.000000000000000 0.000000000e+00
-79.999992370605469 -29.049999237060547 0.000000000000000 0.000000000e+00
-79.999992370605469 -28.002502441406250 0.000000000000000 0.000000000e+00
-79.999992370605469 -26.954999923706055 0.000000000000000 0.000000000e+00
-79.999992370605469 -25.907499313354492 0.000000000000000 0.000000000e+00
-79.999992370605469 -24.859996795654297 0.000000000000000 0.000000000e+00
-79.999992370605469 -23.812500000000000 0.000000000000000 0.000000000e+00
-79.999992370605469 -22.765001296997070 0.000000000000000 0.000000000e+00
-79.999992370605469 -21.717500686645508 0.000000000000000 0.000000000e+00
-79.999992370605469 -20.670001983642578 0.000000000000000 0.000000000e+00
-79.999992370605469 -19.622501373291016 0.000000000000000 0.000000000e+00
-79.999992370605469 -18.574998855590820 0.000000000000000 0.000000000e+00
-79.999992370605469 -7.465085029602051 -0.024922192096710 0.000000000e+00
-79.999992370605469 -6.833446502685547 -0.099634885787964 0.000000000e+00
-79.999992370605469 -6.209618568420410 -0.223677396774292 0.000000000e+00
-79.999992370605469 -5.597446441650391 -0.396284937858582 0.000000000e+00
-79.999992370605469 -5.000705718994141 -0.616393089294434 0.000000000e+00
-79.999992370605469 -4.423073768615723 -0.882644891738892 0.000000000e+00
-79.999992370605469 -3.868114471435547 -1.193398475646973 0.000000000e+00
-79.999992370605469 -3.339248180389404 -1.546738147735596 0.000000000e+00
-79.999992370605469 -2.839736938476563 -1.940484762191773 0.000000000e+00
-79.999992370605469 -2.372659683227539 -2.372210025787354 0.000000000e+00
-79.999992370605469 -1.940897464752197 -2.839253425598145 0.000000000e+00
-79.999992370605469 -1.547111988067627 -3.338734149932861 0.000000000e+00
-79.999992370605469 -1.193731307983398 -3.867571830749512 0.000000000e+00
-79.999992370605469 -0.882933855056763 -4.422505855560303 0.000000000e+00
-79.999992370605469 -0.616636753082275 -5.000116825103760 0.000000000e+00
-79.999992370605469 0.000000000000000 -48.952499389648438 0.000000000e+00
-79.999992370605469 0.000000000000000 -47.904998779296875 0.000000000e+00
-79.999992370605469 0.000000000000000 -46.857498168945313 0.000000000e+00
-79.999992370605469 0.000000000000000 -45.809997558593750 0.000000000e+00
-79.999992370605469 0.000000000000000 -44.762500762939453 0.000000000e+00
-79.999992370605469 0.000000000000000 -43.715000152587891 0.000000000e+00
-79.999992370605469 0.000000000000000 -42.667499542236328 0.000000000e+00
-79.999992370605469 0.000000000000000 -41.619995117187500 0.000000000e+00
-79.999992370605469 0.000000000000000 -40.572502136230469 0.000000000e+00
-79.999992370605469 0.000000000000000 -39.525001525878906 0.000000000e+00
-79.999992370605469 0.000000000000000 -38.477500915527344 0.000000000e+00
-79.999992370605469 0.000000000000000 -37.429996490478516 0.000000000e+00
-79.999992370605469 0.000000000000000 -36.382499694824219 0.000000000e+00
-79.999992370605469 0.000000000000000 -35.334999084472656 0.000000000e+00
-79.999992370605469 0.000000000000000 -34.287498474121094 0.000000000e+00
-79.999992370605469 0.000000000000000 -33.240001678466797 0.000000000e+00
-79.999992370605469 0.000000000000000 -32.192501068115234 0.000000000e+00
-79.999992370605469 0.000000000000000 -31.145000457763672 0.000000000e+00
-79.999992370605469 0.000000000000000 -30.097497940063477 0.000000000e+00
-79.999992370605469 0.000000000000000 -29.049999237060547 0.000000000e+00
-79.285728454589844 -16.479997634887695 0.000000000000000 0.000000000e+00
-79.285720825195313 -48.952499389648438 0.000000000000000 0.000000000e+00
-79.285720825195313 -47.904998779296875 0.000000000000000 0.000000000e+00
-79.285720825195313 -46.857498168945313 0.000000000000000 0.000000000e+00
-79.285720825195313 -45.809997558593750 0.000000000000000 0.000000000e+00
-79.285720825195313 -44.762500762939453 0.000000000000000 0.000000000e+00
-79.285720825195313 -43.715003967285156 0.000000000000000 0.000000000e+00
-79.285720825195313 -42.667499542236328 0.000000000000000 0.000000000e+00
-79.285720825195313 -41.620002746582031 0.000000000000000 0.000000000e+00
-79.285720825195313 -40.572502136230469 0.000000000000000 0.000000000e+00
-79.285720825195313 -39.525001525878906 0.000000000000000 0.000000000e+00
-79.285720825195313 -38.477500915527344 0.000000000000000 0.000000000e+00
-79.285720825195313 -37.429996490478516 0.000000000000000 0.000000000e+00
-79.285720825195313 -36.382499694824219 0.000000000000000 0.000000000e+00
-79.285720825195313 -35.334999084472656 0.000000000000000 0.000000000e+00
-79.285720825195313 -34.287498474121094 0.000000000000000 0.000000000e+00
-79.285720825195313 -33.240001678466797 0.000000000000000 0.000000000e+00
-79.285720825195313 -32.192501068115234 0.000000000000000 0.000000000e+00
-79.285720825195313 -31.145000457763672 0.000000000000000 0.000000000e+00
-79.285720825195313 -30.097497940063477 0.000000000000000 0.000000000e+00
-79.285720825195313 -29.049999237060547 0.000000000000000 0.000000000e+00
-79.285720825195313 -28.002498626708984 0.000000000000000 0.000000000e+00
-79.285720825195313 -26.955001831054688 0.000000000000000 0.000000000e+00
-79.285720825195313 -25.907501220703125 0.000000000000000 0.000000000e+00
-79.285720825195313 -24.859996795654297 0.000000000000000 0.000000000e+00
-79.285720825195313 -23.812500000000000 0.000000000000000 0.000000000e+00
-79.285720825195313 -22.764997482299805 0.000000000000000 0.000000000e+00
-79.285720825195313 -21.717502593994141 0.000000000000000 0.000000000e+00
-79.285720825195313 -20.670001983642578 0.000000000000000 0.000000000e+00
-79.285720825195313 -19.622501373291016 0.000000000000000 0.000000000e+00
-79.285720825195313 -18.574996948242188 0.000000000000000 0.000000000e+00
-79.285720825195313 -17.527500152587891 0.000000000000000 0.000000000e+00
-79.285720825195313 -15.432499885559082 0.000000000000000 0.000000000e+00
-79.285720825195313 -7.465084552764893 -0.024922192096710 0.000000000e+00
-79.285720825195313 -6.833446502685547 -0.099634945392609 0.000000000e+00
-79.285720825195313 -6.209618568420410 -0.223677396774292 0.000000000e+00
-79.285720825195313 -5.597446441650391 -0.396284937858582 0.000000000e+00
-79.285720825195313 -5.000705718994141 -0.616393089294434 0.000000000e+00
-79.285720825195313 -4.423073291778565 -0.882644891738892 0.000000000e+00
-79.285720825195313 -3.868114471435547 -1.193398475646973 0.000000000e+00
-79.285720825195313 -3.339248180389404 -1.546738147735596 0.000000000e+00
-79.285720825195313 -2.839736938476563 -1.940484523773193 0.000000000e+00
-79.285720825195313 -2.372659683227539 -2.372210025787354 0.000000000e+00
-79.285720825195313 -1.940897464752197 -2.839253425598145 0.000000000e+00
-79.285720825195313 -1.547112226486206 -3.338734149932861 0.000000000e+00
-79.285720825195313 -0.882933855056763 -4.422506332397461 0.000000000e+00
-79.285720825195313 -0.616636753082275 -5.000117301940918 0.000000000e+00
-79.285720825195313 -0.396481513977051 -5.596841335296631 0.000000000e+00
-79.285720825195313 0.000000000000000 -48.952499389648438 0.000000000e+00
-79.285720825195313 0.000000000000000 -47.904998779296875 0.000000000e+00
-79.285720825195313 0.000000000000000 -46.857498168945313 0.000000000e+00
-79.285720825195313 0.000000000000000 -45.809997558593750 0.000000000e+00
-79.285720825195313 0.000000000000000 -44.762500762939453 0.000000000e+00
-79.285720825195313 0.000000000000000 -43.715003967285156 0.000000000e+00
-79.285720825195313 0.000000000000000 -42.667499542236328 0.000000000e+00
-79.285720825195313 0.000000000000000 -41.619995117187500 0.000000000e+00
-79.285720825195313 0.000000000000000 -40.572502136230469 0.000000000e+00
-79.285720825195313 0.000000000000000 -39.525001525878906 0.000000000e+00
-79.285720825195313 0.000000000000000 -38.477500915527344 0.000000000e+00
-79.285720825195313 0.000000000000000 -37.429996490478516 0.000000000e+00
-79.285720825195313 0.000000000000000 -36.382499694824219 0.000000000e+00
-79.285720825195313 0.000000000000000 -35.334999084472656 0.000000000e+00
-79.285720825195313 0.000000000000000 -34.287498474121094 0.000000000e+00
-79.285720825195313 0.000000000000000 -33.240001678466797 0.000000000e+00
-79.285720825195313 0.000000000000000 -32.192501068115234 0.000000000e+00
-79.285720825195313 0.000000000000000 -31.145000457763672 0.000000000e+00
-79.285720825195313 0.000000000000000 -30.097497940063477 0.000000000e+00
-79.285720825195313 0.000000000000000 -29.049999237060547 0.000000000e+00
-79.285720825195313 0.000000000000000 -28.002498626708984 0.000000000e+00
-79.285720825195313 0.000000000000000 -26.955001831054688 0.000000000e+00
-79.285720825195313 0.000000000000000 -25.907501220703125 0.000000000e+00
-79.285720825195313 0.000000000000000 -24.859996795654297 0.000000000e+00
-79.285720825195313 0.000000000000000 -23.812500000000000 0.000000000e+00
-79.285720825195313 0.000000000000000 -22.764997482299805 0.000000000e+00
-79.285720825195313 0.000000000000000 -21.717502593994141 0.000000000e+00
-79.285720825195313 0.000000000000000 -20.670001983642578 0.000000000e+00
-79.285720825195313 0.000000000000000 -19.622499465942383 0.000000000e+00
-79.285720825195313 0.000000000000000 -18.575000762939453 0.000000000e+00
-79.285713195800781 -50.000000000000000 0.000000000000000 0.000000000e+00
-79.285713195800781 -14.384999275207520 0.000000000000000 0.000000000e+00
-79.285713195800781 -13.337499618530273 0.000000000000000 0.000000000e+00
-79.285713195800781 -12.289999961853027 0.000000000000000 0.000000000e+00
-79.285713195800781 -11.242500305175781 0.000000000000000 0.000000000e+00
-79.285713195800781 -10.194999694824219 0.000000000000000 0.000000000e+00
-79.285713195800781 -9.147500991821289 0.000000000000000 0.000000000e+00
-79.285713195800781 -8.100000381469727 0.000000000000000 0.000000000e+00
-79.285713195800781 -0.223825931549072 -6.208999633789063 0.000000000e+00
-79.285713195800781 -0.099734365940094 -6.832818508148193 0.000000000e+00
-79.285713195800781 0.000000000000000 -50.000000000000000 0.000000000e+00
-79.285713195800781 0.000000000000000 -17.527500152587891 0.000000000e+00
-79.285713195800781 0.000000000000000 -16.479999542236328 0.000000000e+00
-79.285713195800781 0.000000000000000 -15.432500839233398 0.000000000e+00
-79.285713195800781 0.000000000000000 -14.385000228881836 0.000000000e+00
-79.285713195800781 0.000000000000000 -13.337498664855957 0.000000000e+00
-79.285713195800781 0.000000000000000 -12.290000915527344 0.000000000e+00
-79.285713195800781 0.000000000000000 -11.242500305175781 0.000000000e+00
-79.285713195800781 0.000000000000000 -10.194998741149902 0.000000000e+00
-79.285713195800781 0.000000000000000 -9.147499084472656 0.000000000e+00
-79.285713195800781 0.000000000000000 -8.100000381469727 0.000000000e+00
-79.285705566406250 -1.193731307983398 -3.867571830749512 0.000000000e+00
-79.285705566406250 -0.024972051382065 -7.464449882507324 0.000000000e+00
-78.571434020996094 -16.479997634887695 0.000000000000000 0.000000000e+00
-78.571426391601563 -50.000000000000000 0.000000000000000 0.000000000e+00
-78.571426391601563 -48.952499389648438 0.000000000000000 0.000000000e+00
-78.571426391601563 -47.904998779296875 0.000000000000000 0.000000000e+00
-78.571426391601563 -46.857494354248047 0.000000000000000 0.000000000e+00
-78.571426391601563 -45.810001373291016 0.000000000000000 0.000000000e+00
-78.571426391601563 -44.762500762939453 0.000000000000000 0.000000000e+00
-78.571426391601563 -43.715000152587891 0.000000000000000 0.000000000e+00
-78.571426391601563 -42.667499542236328 0.000000000000000 0.000000000e+00
-78.571426391601563 -41.619995117187500 0.000000000000000 0.000000000e+00
-78.571426391601563 -22.764999389648438 0.000000000000000 0.000000000e+00
-78.571426391601563 -21.717498779296875 0.000000000000000 0.000000000e+00
-78.571426391601563 -20.669998168945313 0.000000000000000 0.000000000e+00
-78.571426391601563 -19.622501373291016 0.000000000000000 0.000000000e+00
-78.571426391601563 -18.574998855590820 0.000000000000000 0.000000000e+00
-78.571426391601563 -17.527500152587891 0.000000000000000 0.000000000e+00
-78.571426391601563 -15.432498931884766 0.000000000000000 0.000000000e+00
-78.571426391601563 -14.384999275207520 0.000000000000000 0.000000000e+00
-78.571426391601563 -13.337498664855957 0.000000000000000 0.000000000e+00
-78.571426391601563 -12.289999961853027 0.000000000000000 0.000000000e+00
-78.571426391601563 -11.242500305175781 0.000000000000000 0.000000000e+00
-78.571426391601563 -10.194999694824219 0.000000000000000 0.000000000e+00
-78.571426391601563 -9.147500991821289 0.000000000000000 0.000000000e+00
-78.571426391601563 -8.100000381469727 0.000000000000000 0.000000000e+00
-78.571426391601563 -7.465084552764893 -0.024922192096710 0.000000000e+00
-78.571426391601563 -6.833446502685547 -0.099634885787964 0.000000000e+00
-78.571426391601563 -6.209618568420410 -0.223677396774292 0.000000000e+00
-78.571426391601563 -5.597445964813232 -0.396284818649292 0.000000000e+00
-78.571426391601563 -1.193731546401978 -3.867571830749512 0.000000000e+00
-78.571426391601563 -0.882933855056763 -4.422506332397461 0.000000000e+00
-78.571426391601563 -0.616636753082275 -5.000117301940918 0.000000000e+00
-78.571426391601563 -0.396481752395630 -5.596841335296631 0.000000000e+00
-78.571426391601563 -0.223825931549072 -6.208999633789063 0.000000000e+00
-78.571426391601563 -0.099734365940094 -6.832818508148193 0.000000000e+00
-78.571426391601563 -0.024972081184387 -7.464449882507324 0.000000000e+00
-78.571426391601563 0.000000000000000 -50.000000000000000 0.000000000e+00
-78.571426391601563 0.000000000000000 -48.952499389648438 0.000000000e+00
-78.571426391601563 0.000000000000000 -47.904998779296875 0.000000000e+00
-78.571426391601563 0.000000000000000 -46.857498168945313 0.000000000e+00
-78.571426391601563 0.000000000000000 -45.810001373291016 0.000000000e+00
-78.571426391601563 0.000000000000000 -44.762500762939453 0.000000000e+00
-78.571426391601563 0.000000000000000 -43.715000152587891 0.000000000e+00
-78.571426391601563 0.000000000000000 -42.667499542236328 0.000000000e+00
-78.571426391601563 0.000000000000000 -41.619995117187500 0.000000000e+00
-78.571426391601563 0.000000000000000 -40.572502136230469 0.000000000e+00
